# .PCD v0.7 - Point Cloud Data file format
VERSION 0.7
FIELDS x y z
SIZE 4 4 4
TYPE F F F
COUNT 1 1 1
WIDTH 334
HEIGHT 1
VIEWPOINT 0 0 0 1 0 0 0
POINTS 334
DATA ascii
15.948 -3.8510001 -5.9089999
16.113001 -3.9300001 -5.8709998
16.013 -3.905 -5.8709998
15.898 -3.8789999 -5.8720002
15.914 -3.8670001 -5.8660002
15.951 -3.8729999 -5.8569999
15.973 -3.8699999 -5.8520002
16.219 -3.994 -5.8260002
16.103001 -3.9430001 -5.8390002
15.992 -3.8670001 -5.8330002
16.219 -3.9960001 -5.8060002
16.063999 -3.9059999 -5.8109999
16.000999 -3.826 -5.8010001
16.016001 -3.8599999 -5.777
15.891 -3.7490001 -5.7620001
16.243 -4.1240001 -5.743
16.275 -4.1129999 -5.743
16.018 -3.8789999 -5.7490001
16.040001 -3.878 -5.7589998
16.115999 -3.957 -5.7379999
16.004999 -3.8139999 -5.7340002
16.173 -4.152 -5.7069998
15.991 -3.8789999 -5.704
15.862 -3.733 -5.7179999
15.941 -3.654 -5.7049999
16.197001 -4.0910001 -5.6830001
16.007999 -3.8380001 -5.684
15.96 -3.6530001 -5.6830001
16.181999 -4.0760002 -5.6669998
16.051001 -3.951 -5.6739998
15.991 -3.8740001 -5.665
16.011 -3.79 -5.678
16.089001 -4.0009999 -5.6589999
15.995 -3.822 -5.645
16.002001 -3.8340001 -5.658
15.988 -3.7049999 -5.6560001
16.077 -4.0250001 -5.6230001
16 -3.858 -5.625
15.984 -3.8199999 -5.6230001
16.030001 -3.7409999 -5.6259999
16.014 -3.5639999 -5.631
15.928 -3.546 -5.6259999
16.120001 -4.164 -5.6009998
16.097 -4.112 -5.6199999
15.999 -3.846 -5.6170001
16.077999 -3.6210001 -5.6160002
16.079 -3.4749999 -5.6020002
16.059 -4.1069999 -5.5999999
16.025999 -4.0029998 -5.5879998
15.991 -3.95 -5.5869999
16.000999 -3.859 -5.586
16.039 -3.733 -5.599
16.093 -3.4809999 -5.585
16.142 -4.204 -5.579
15.855 -4.177 -5.566
16.125999 -4.1440001 -5.5640001
16.047001 -4.033 -5.579
16.038 -3.756 -5.5619998
16.034 -3.727 -5.5710001
16.052 -3.6459999 -5.5650001
16.025 -4.2150002 -5.5440001
16.193001 -4.1630001 -5.546
16.142 -4.158 -5.5599999
15.988 -3.934 -5.5450001
16.006001 -3.8599999 -5.5510001
16.096001 -3.523 -5.5469999
16.149 -4.1399999 -5.5240002
15.987 -4.0219998 -5.5219998
16.025 -3.7939999 -5.5310001
16.041 -3.6270001 -5.5250001
16.174 -3.398 -5.5370002
16.306999 -4.2119999 -5.5110002
16.249001 -4.1570001 -5.52
15.997 -3.9849999 -5.5139999
15.998 -3.941 -5.5029998
15.957 -3.8870001 -5.5170002
15.985 -3.8800001 -5.5040002
15.996 -3.8429999 -5.5190001
16.018 -3.8510001 -5.513
16.041 -3.6270001 -5.5019999
16.212999 -3.4449999 -5.5100002
15.815 -4.178 -5.4809999
15.881 -4.1789999 -5.494
15.7735 -4.1575003 -5.4995003
16.084 -4.0630002 -5.4920001
16.007 -4.0180001 -5.4879999
16.009001 -3.836 -5.487
16.02 -3.822 -5.5
16.045 -3.543 -5.4910002
16.136 -3.3740001 -5.4910002
16.028999 -3.3559999 -5.487
16.336 -4.2620001 -5.473
16.296 -4.2360001 -5.4749999
16.319 -4.211 -5.4770002
16.017 -3.9779999 -5.4790001
16.002001 -3.8340001 -5.4629998
16.054001 -3.7490001 -5.467
16.309 -4.2249999 -5.448
15.994 -4.006 -5.4569998
16.006001 -4.0120001 -5.447
16.011999 -3.9979999 -5.4460001
15.998 -3.8800001 -5.4489999
16.018 -3.7809999 -5.4450002
16.062 -3.7190001 -5.4439998
16.047001 -3.5220001 -5.4510002
16.325001 -4.1919999 -5.4349999
16.344999 -4.138 -5.427
16.021 -4.007 -5.421
16.011 -3.842 -5.4330001
16.061001 -3.7449999 -5.4390001
16.035 -3.5250001 -5.4289999
16.087 -3.3469999 -5.4359999
16.316999 -4.1440001 -5.401
16.021 -4.0089998 -5.414
16.01 -3.9990001 -5.414
16.02 -3.858 -5.414
16.033001 -3.7579999 -5.4089999
16.031 -3.441 -5.414
16.009001 -3.2950001 -5.4109998
16.298 -4.237 -5.3909998
16.326 -4.1789999 -5.3920002
16.250999 -4.0830002 -5.3899999
16.091 -4.0229998 -5.3990002
16.122999 -4.026 -5.382
16.006001 -3.9059999 -5.4000001
16.023001 -3.908 -5.388
16.000999 -3.8329999 -5.3899999
16.039 -3.677 -5.381
16.063 -3.645 -5.3979998
16.044001 -3.326 -5.3959999
16.346001 -4.1719999 -5.3800001
16.007 -3.904 -5.3790002
15.994 -3.7750001 -5.3790002
16.072001 -3.6459999 -5.3730001
16.038 -3.415 -5.3720002
16.052999 -3.339 -5.3720002
16.039 -3.3080001 -5.3740001
15.931 -3.25 -5.3779998
16.336 -4.1389999 -5.342
15.992 -3.938 -5.349
16.004 -3.892 -5.3474998
15.964 -3.777 -5.3590002
16.039 -3.4260001 -5.3559999
16.051001 -3.348 -5.349
16.052999 -3.3399999 -5.3410001
16.087 -3.184 -5.3530002
16.621 -4.2540002 -5.335
16.35 -4.1859999 -5.3390002
16.226 -4.0609999 -5.3400002
16.120001 -4.0100002 -5.3270001
16.004 -3.967 -5.322
16.087 -3.5829999 -5.3239999
16.096001 -3.5480001 -5.335
16.063 -3.155 -5.3379998
16.635 -4.2849998 -5.3070002
16.160999 -4.0240002 -5.3039999
15.926 -3.7850001 -5.3099999
15.881 -3.779 -5.302
16.112 -3.5539999 -5.316
16.07 -3.3340001 -5.3119998
16.035 -3.2290001 -5.3200002
16.040001 -3.1600001 -5.302
16.684 -4.3109999 -5.2849998
16.665001 -4.2839999 -5.2870002
16.469999 -4.1900001 -5.2849998
16.364 -4.1729999 -5.2820001
16.384001 -4.1550002 -5.2880001
16.309 -4.085 -5.2919998
15.921 -3.799 -5.2839999
15.945 -3.661 -5.2940001
16.200001 -3.3469999 -5.2969999
16.083 -3.3369999 -5.2969999
16.052999 -3.3150001 -5.2989998
16.041 -3.27 -5.2989998
16.002001 -3.2030001 -5.2849998
16.551001 -4.184 -5.2800002
16.43 -4.1750002 -5.2680001
16.027 -3.869 -5.2680001
15.993 -3.816 -5.2719998
15.988 -3.71 -5.2729998
15.928 -3.645 -5.2779999
16.073 -3.5880001 -5.2659998
16.035999 -3.296 -5.2709999
16.059 -3.2520001 -5.276
16.046 -3.1619999 -5.2740002
16.631001 -4.3340001 -5.2459998
16.055 -3.9690001 -5.25
16.108 -3.974 -5.2540002
16.032 -3.9170001 -5.2469997
15.842 -3.756 -5.2550001
16.052999 -3.151 -5.2420001
16.68 -4.3940001 -5.2290001
16.666 -4.3049998 -5.2259998
16.677999 -4.2620001 -5.2399998
16.669001 -4.23 -5.2249999
16.094999 -3.9960001 -5.2319999
16.284 -3.888 -5.2290001
16.028 -3.786 -5.23
15.847 -3.7709999 -5.2340002
15.862 -3.756 -5.2350001
15.883 -3.7539999 -5.2379999
15.935 -3.7360001 -5.2280002
15.912 -3.6819999 -5.2399998
15.93 -3.059 -5.223
16.66 -4.402 -5.2179999
16.698 -4.27 -5.2030001
16.533001 -4.151 -5.2119999
16.156 -3.9949999 -5.2189999
16.106001 -3.9749999 -5.204
16.056 -3.95 -5.2179999
16.295 -3.9389999 -5.2049999
16.042999 -3.9130001 -5.2189999
16.212 -3.9130001 -5.2030001
16.157 -3.8829999 -5.2150002
16.1875 -3.8445001 -5.2095003
16.125 -3.836 -5.2150002
16.367001 -3.835 -5.2179999
16.086 -3.8150001 -5.2179999
16.346001 -3.8199999 -5.2059999
16.163 -3.7980001 -5.2160001
16.042 -3.2309999 -5.2069998
16.047001 -3.2119999 -5.2179999
16.018 -3.109 -5.211
16.002001 -3.0899999 -5.2189999
15.909 -3.0350001 -5.2129998
16.632999 -4.4169998 -5.1830001
16.674 -4.3280001 -5.197
16.681999 -4.1630001 -5.1989999
16.545 -4.0770001 -5.1890001
16.372 -4.0549998 -5.1890001
16.382 -4.0549998 -5.1919999
16.205 -4.0139999 -5.1999998
16.278999 -3.9130001 -5.1950002
16.450001 -3.8859999 -5.1820002
16.396999 -3.8640001 -5.198
16.4 -3.8469999 -5.1939998
16.461 -3.819 -5.1890001
16.382999 -3.7880001 -5.198
16.223 -3.7679999 -5.1989999
16.277 -3.7650001 -5.1929998
16.143999 -3.7049999 -5.1999998
15.832 -3.6489999 -5.1830001
15.937 -3.6589999 -5.1869998
15.954 -3.5929999 -5.1880002
16.200001 -3.5480001 -5.198
16.011 -3.148 -5.1849999
16.000999 -3.1159999 -5.1950002
15.825 -3.02 -5.198
16.711 -4.3049998 -5.1729999
16.714001 -4.2940001 -5.1729999
16.690001 -4.2410002 -5.171
16.709 -4.2020001 -5.1739998
16.655001 -4.145 -5.1680002
16.691999 -4.086 -5.1659999
16.349001 -4.0479999 -5.1789999
16.252001 -4.033 -5.1789999
16.362 -4.0180001 -5.164
16.289 -3.9749999 -5.1729999
16.23 -3.9530001 -5.1719999
16.422001 -3.842 -5.1729999
15.859 -3.654 -5.1680002
16.051001 -3.599 -5.1609998
16.105 -3.5910001 -5.1700001
15.988 -3.128 -5.164
16.666 -4.4349999 -5.151
16.694 -4.3070002 -5.1420002
16.705 -4.2199998 -5.1430001
16.714001 -4.1539998 -5.145
16.437 -3.8789999 -5.1539998
16.459 -3.7850001 -5.1529999
16.399 -3.721 -5.1599998
16.4 -3.724 -5.1529999
15.938 -3.602 -5.158
15.963 -3.5739999 -5.1550002
15.799 -2.96 -5.1469998
16.705999 -4.4390001 -5.1339998
16.726 -4.3670001 -5.1209998
16.323 -3.9419999 -5.1360002
16.385 -3.944 -5.125
16.485001 -3.8299999 -5.1329999
16.457001 -3.747 -5.1399999
16.298 -3.665 -5.1290002
16.223 -3.619 -5.1269999
16.725 -4.3369999 -5.1069999
16.711 -4.2030001 -5.1149998
16.718 -4.198 -5.1129999
16.799999 -4.1350002 -5.1110001
16.707001 -4.092 -5.118
16.459 -3.9809999 -5.1040001
16.336 -3.9400001 -5.1110001
16.351999 -3.9130001 -5.1009998
16.468 -3.868 -5.112
16.497 -3.8599999 -5.1059999
16.448999 -3.744 -5.112
16.341 -3.677 -5.1170001
15.99 -3.0999999 -5.1199999
15.8 -2.9590001 -5.118
16.715 -4.4039998 -5.086
16.726 -4.244 -5.0879998
16.370001 -3.9349999 -5.0939999
16.457001 -3.6289999 -5.098
16.500999 -3.6329999 -5.0929999
15.9585 -3.0469999 -5.0875001
15.936 -3.003 -5.0999999
15.885 -2.9890001 -5.0890002
15.815 -2.951 -5.0910001
16.732 -4.3280001 -5.079
16.745001 -4.2750001 -5.0619998
16.750999 -4.204 -5.0669999
16.440001 -3.8599999 -5.0780001
16.406 -3.8380001 -5.0630002
16.451 -3.7650001 -5.0640001
16.525 -3.6589999 -5.066
15.861 -2.937 -5.0710001
15.813 -2.902 -5.0799999
16.705999 -4.4299998 -5.0479999
16.709 -4.4109998 -5.046
16.735001 -4.2270002 -5.046
16.445 -3.8629999 -5.0599999
16.511 -3.7690001 -5.0549998
16.443001 -3.6860001 -5.0489998
15.89 -2.9560001 -5.0560002
16.747999 -4.2740002 -5.0359998
15.922 -2.967 -5.0380001
16.656 -4.441 -5.006
16.737 -4.3280001 -5.0019999
16.735001 -4.2150002 -5.0159998
16.811001 -4.3940001 -4.9920001
16.75 -4.302 -4.9970002
16.757 -4.401 -4.9640002
16.726999 -4.348 -4.967
16.768 -4.2199998 -4.9790001
16.746 -4.2459998 -4.9419999
16.743 -4.2839999 -4.8990002
