# .PCD v0.7 - Point Cloud Data file format
VERSION 0.7
FIELDS x y z
SIZE 4 4 4
TYPE F F F
COUNT 1 1 1
WIDTH 324
HEIGHT 1
VIEWPOINT 0 0 0 1 0 0 0
POINTS 324
DATA ascii
16.025999 -3.5079999 -5.822
16.114 -3.5190001 -5.8330002
16.073 -3.49 -5.8299999
16.018999 -3.8150001 -5.8200002
16.125999 -3.4990001 -5.8140001
16.1 -3.527 -5.8000002
16.037001 -3.539 -5.7610002
15.78 -3.6270001 -5.7589998
16.021 -3.5220001 -5.75
16.054001 -3.5150001 -5.7470002
16.006001 -3.8510001 -5.7389998
15.83 -3.73 -5.7309999
15.786 -3.6500001 -5.7220001
16.143 -4.1259999 -5.7090001
15.973 -3.6470001 -5.704
15.761 -3.622 -5.717
15.841 -3.6270001 -5.7080002
15.936 -3.7460001 -5.6960001
15.842 -3.668 -5.684
16.044001 -3.6670001 -5.697
15.908 -3.6489999 -5.6939998
15.77 -3.5599999 -5.6880002
16.004999 -3.4909999 -5.6939998
16.002001 -3.9030001 -5.665
15.991 -3.8959999 -5.6739998
15.865 -3.608 -5.6719999
15.821 -3.598 -5.6789999
16.077 -4.1529999 -5.6469998
15.973 -3.7390001 -5.658
16.035999 -3.6630001 -5.658
16.039 -3.658 -5.6570001
15.956 -3.5910001 -5.652
16.007 -3.4890001 -5.6500001
15.98 -3.461 -5.658
16.09 -4.033 -5.6220002
16.038 -3.802 -5.6220002
16.074001 -3.6535001 -5.6260004
16.058001 -3.619 -5.638
15.968 -3.5669999 -5.6339998
16.1 -4.1620002 -5.6149998
16.086 -4.1479998 -5.6079998
16.084999 -4.0650001 -5.6020002
16.037001 -3.9920001 -5.6079998
16.014 -3.8039999 -5.6069999
16.055 -3.6400001 -5.6090002
16.096001 -3.5710001 -5.6040001
15.845 -3.5369999 -5.6059999
16.058001 -3.5109999 -5.6129999
15.996 -3.484 -5.605
15.904 -3.4449999 -5.6149998
16.208 -4.237 -5.5949998
16.132 -4.1599998 -5.5840001
15.999 -3.8759999 -5.5910001
16.08 -3.494 -5.598
16.003 -3.4749999 -5.592
16.139 -3.464 -5.5869999
15.884 -3.4560001 -5.5970001
16.302999 -4.25 -5.5609999
16.181 -4.1529999 -5.5619998
16.091999 -4.1160002 -5.5630002
16.013 -4.059 -5.5679998
16.059999 -3.6500001 -5.579
16.127001 -3.4860001 -5.5749998
16.205999 -4.1729999 -5.5560002
16.233 -4.1739998 -5.5409999
16.063999 -4.1040001 -5.553
16.047001 -3.71 -5.552
16.037001 -3.697 -5.5500002
16.065001 -3.648 -5.546
16.073999 -3.556 -5.5485001
16.120001 -3.4820001 -5.5549998
16.167999 -3.483 -5.552
16.278999 -4.2350001 -5.5349998
15.992 -3.8759999 -5.5250001
16.033001 -3.776 -5.5320001
16.124001 -3.4909999 -5.527
16.278 -4.1820002 -5.5149999
16.000999 -4.0209999 -5.5159998
16.049999 -3.631 -5.5019999
16.055 -3.586 -5.5120001
16.216999 -4.1079998 -5.4829998
16.072001 -4.092 -5.4840002
15.97 -3.927 -5.4959998
16.048 -3.6110001 -5.4860001
16.089001 -3.4619999 -5.4829998
16.297001 -4.2329998 -5.4699998
16.299999 -4.1550002 -5.4790001
16.329 -4.1560001 -5.4720001
16.01 -3.984 -5.4679999
15.998 -3.967 -5.467
16.028 -3.7809999 -5.4710002
16.073999 -3.6800001 -5.473
16.011 -3.602 -5.4689999
16.042 -3.595 -5.4790001
16.080999 -3.4790001 -5.4780002
16.329 -4.2140002 -5.4450002
16.297001 -4.1919999 -5.454
16.323 -4.1750002 -5.4510002
16.246 -4.1149998 -5.4580002
16.025 -4.0219998 -5.448
15.986 -3.914 -5.447
16.062 -3.628 -5.4569998
16.094 -3.365 -5.4499998
16.006001 -3.8299999 -5.4400001
16.07 -3.632 -5.427
16.055 -3.46 -5.4330001
16.059 -3.415 -5.4359999
16.055 -3.306 -5.4359999
16.336 -4.1789999 -5.415
16.323 -4.1329999 -5.4169998
16.063 -3.6860001 -5.4120002
16.025002 -3.5050001 -5.4060001
16.035999 -3.4920001 -5.4050002
16.318001 -4.1919999 -5.3930001
16.329 -4.1009998 -5.3969998
15.998 -3.9660001 -5.3940001
16.007999 -3.8710001 -5.3969998
15.985 -3.8099999 -5.382
16.055 -3.737 -5.3860002
16.087999 -3.6270001 -5.3959999
16.045 -3.5680001 -5.3899999
16.044001 -3.5480001 -5.3850002
16.023001 -3.4330001 -5.3979998
16.056 -3.3559999 -5.3969998
15.998 -3.2909999 -5.3829999
16.372 -4.1430001 -5.3790002
16.368999 -4.1160002 -5.3610001
16.077999 -3.5869999 -5.369
16.385 -3.5009999 -5.3670001
16.304001 -3.4630001 -5.3670001
16.027 -3.448 -5.3709998
16.046 -3.286 -5.362
16.041 -3.244 -5.362
16.348 -4.177 -5.3460002
16.190001 -4.052 -5.3530002
16.011 -3.924 -5.349
16.09 -3.609 -5.3439999
16.073 -3.585 -5.3439999
16.055 -3.457 -5.349
16.052999 -3.4170001 -5.349
16.070999 -3.3989999 -5.3410001
16.034 -3.2509999 -5.3509998
15.967 -3.1949999 -5.3520002
16.341999 -4.1729999 -5.3239999
16.344999 -4.1539998 -5.3369999
16.059 -3.99 -5.336
16.003 -3.862 -5.329
16.07 -3.6359999 -5.3210001
16.26 -3.5250001 -5.3330002
16.194 -3.497 -5.336
16.1 -3.4749999 -5.3330002
16.122999 -3.4630001 -5.335
16.33 -3.421 -5.3319998
16.132999 -3.3959999 -5.336
16.047001 -3.3369999 -5.3319998
16.042 -3.2690001 -5.3379998
16.364 -4.1420002 -5.302
16.027 -3.9519999 -5.3189998
15.928 -3.744 -5.3010001
15.996 -3.711 -5.3179998
16.076 -3.6140001 -5.309
16.042 -3.2809999 -5.3080001
16.038 -3.2550001 -5.3150001
16.642 -4.2870002 -5.3000002
16.673 -4.223 -5.2839999
16.34 -4.1599998 -5.296
16.219999 -4.0580001 -5.296
16.146999 -3.5350001 -5.2969999
16.063999 -3.3239999 -5.2810001
16.061001 -3.2869999 -5.2849998
16.013 -3.1070001 -5.2880001
15.982 -3.0810001 -5.2820001
16.625999 -4.348 -5.2719998
16.667999 -4.3000002 -5.2670002
16.646 -4.2600002 -5.27
16.548 -4.178 -5.2670002
16.17 -3.5539999 -5.2800002
16.476 -3.5439999 -5.2610002
16.468 -3.5150001 -5.2610002
16.047001 -3.1719999 -5.2639999
16.025999 -3.151 -5.2680001
16.014 -3.098 -5.2659998
16.645 -4.349 -5.25
16.669001 -4.3109999 -5.2480001
16.472 -4.1599998 -5.257
16.326 -4.098 -5.243
16.027 -3.9530001 -5.257
16.048 -3.8859999 -5.2410002
16.018999 -3.842 -5.25
16.014 -3.615 -5.257
15.996 -3.592 -5.2480001
16.073999 -3.5550001 -5.2459998
16.039 -3.2920001 -5.2540002
16.041 -3.2739999 -5.2420001
16.052999 -3.2130001 -5.243
16.624001 -4.3660002 -5.2259998
16.6875 -4.3535004 -5.2220001
16.672001 -4.2909999 -5.2399998
16.683001 -4.2470002 -5.2259998
16.355 -4.125 -5.2280002
16.167999 -4.027 -5.2249999
16.201 -4.0300002 -5.2319999
16.035999 -3.9030001 -5.2350001
15.928 -3.74 -5.237
16.156 -3.5469999 -5.2319999
16.024 -3.1559999 -5.2340002
16.004 -3.095 -5.2319999
16.283001 -4.0900002 -5.2189999
16.257 -4.0380001 -5.2020001
16.063999 -3.9489999 -5.217
16.325001 -3.904 -5.2080002
16.106001 -3.869 -5.217
16.341 -3.8740001 -5.2020001
16.159 -3.823 -5.2080002
16.281 -3.8069999 -5.2069998
16.087999 -3.7520001 -5.2030001
16.268 -3.523 -5.211
16.054001 -3.243 -5.2179999
16.084 -3.233 -5.2150002
16.011 -3.085 -5.2010002
16.702 -4.3730001 -5.191
16.679001 -4.2399998 -5.197
16.695 -4.1900001 -5.1859999
16.667 -4.1789999 -5.1960001
16.695 -4.1659999 -5.1900001
16.471001 -4.1329999 -5.1810002
16.563 -4.1230001 -5.1960001
16.424 -4.0450001 -5.1810002
16.256001 -3.9460001 -5.191
16.433001 -3.885 -5.1830001
16.329 -3.753 -5.1919999
16.021 -3.5510001 -5.1880002
16.68 -4.4099998 -5.177
16.707001 -4.2529998 -5.1659999
16.702 -4.2309999 -5.1620002
16.690001 -4.2030001 -5.1690001
16.686001 -4.1329999 -5.1609998
16.566999 -4.0609999 -5.178
16.184999 -3.9860001 -5.178
16.27 -3.9549999 -5.1620002
16.381001 -3.921 -5.1719999
16.052999 -3.9100001 -5.177
16.438 -3.7909999 -5.164
16.193001 -3.6719999 -5.1659999
15.921 -3.6359999 -5.1659999
16.415001 -3.6170001 -5.165
15.933 -3.5469999 -5.1719999
16.709 -4.4130001 -5.1409998
16.708 -4.2550001 -5.1570001
16.337999 -4.0139999 -5.1589999
16.282 -3.9760001 -5.152
16.333 -3.7149999 -5.1550002
16.059999 -3.5899999 -5.1500001
16.216999 -3.5829999 -5.1430001
15.964 -3.5680001 -5.152
16.062 -3.5669999 -5.1409998
15.972 -3.0539999 -5.1570001
16.716999 -4.3889999 -5.132
16.702999 -4.335 -5.1269999
16.702 -4.3000002 -5.1220002
16.707001 -4.283 -5.1350002
16.695999 -4.1269999 -5.1370001
16.726999 -4.1259999 -5.1230001
16.455 -3.829 -5.1259999
16.461 -3.7880001 -5.1240001
16.468 -3.642 -5.1259999
16.245001 -3.6070001 -5.1220002
16.063999 -3.0899999 -5.132
15.982 -3.0710001 -5.1350002
15.947 -3.0480001 -5.131
15.859 -3.0220001 -5.1329999
15.841 -3.0020001 -5.1370001
15.778 -2.9690001 -5.132
15.761 -2.951 -5.1329999
16.726002 -4.4060001 -5.1114998
16.73 -4.3270001 -5.1129999
16.711 -4.1440001 -5.1030002
16.389999 -3.8900001 -5.1199999
16.429001 -3.878 -5.119
16.32 -3.641 -5.1170001
16.309999 -3.628 -5.1129999
15.965 -3.115 -5.1020002
15.745 -2.8870001 -5.1170001
16.737 -4.3540001 -5.0809999
16.721001 -4.1599998 -5.0900002
16.424 -4.0110002 -5.0999999
16.341999 -3.908 -5.0939999
16.500999 -3.8039999 -5.0840001
16.469 -3.6070001 -5.0999999
15.786 -2.8469999 -5.092
16.736 -4.2950001 -5.0609999
16.737 -4.276 -5.0749998
16.73 -4.1929998 -5.066
16.702 -4.118 -5.0679998
16.351999 -3.9289999 -5.0679998
16.462 -3.8329999 -5.0640001
16.476 -3.7249999 -5.0619998
16.396 -3.677 -5.0799999
15.759 -2.8729999 -5.0749998
15.779 -2.8789999 -5.072
16.746 -4.3870001 -5.0419998
16.756001 -4.2090001 -5.0500002
16.726 -4.1884999 -5.053
16.455999 -3.6860001 -5.0539999
15.845 -2.925 -5.0489998
15.782 -2.8759999 -5.052
15.802 -2.8640001 -5.0419998
16.747 -4.3629999 -5.0310001
16.763 -4.256 -5.0300002
15.89 -2.9790001 -5.0300002
15.817 -2.924 -5.0300002
15.87 -2.891 -5.0380001
16.749001 -4.2930002 -5.0170002
15.834 -2.9330001 -5.0159998
15.87 -2.8929999 -5.0120001
16.677999 -4.4330001 -4.9970002
16.733999 -4.3629999 -4.9840002
16.766001 -4.3010001 -5
16.747999 -4.2750001 -4.9809999
15.917 -2.8940001 -4.9980001
16.787001 -4.3460002 -4.9679999
16.756001 -4.329 -4.9650002
16.775 -4.3369999 -4.9380002
16.816 -4.3189998 -4.9310002
